# .PCD v0.7 - Point Cloud Data file format
VERSION 0.7
FIELDS x y z
SIZE 4 4 4
TYPE F F F
COUNT 1 1 1
WIDTH 1640
HEIGHT 1
VIEWPOINT 0 0 0 1 0 0 0
POINTS 1640
DATA ascii
-0.89177138 -0.77286857 2.312
-0.88736761 -0.77286857 2.312
-0.88296378 -0.77286857 2.312
-0.87856001 -0.77286857 2.312
-0.87982762 -0.77788287 2.3270001
-0.87539524 -0.77788287 2.3270001
-0.87096292 -0.77788287 2.3270001
-0.86653054 -0.77788287 2.3270001
-0.86209816 -0.77788287 2.3270001
-0.85766578 -0.77788287 2.3270001
-0.85910004 -0.7832315 2.3430002
-0.84880096 -0.77788287 2.3270001
-0.84436858 -0.77788287 2.3270001
-0.8399362 -0.77788287 2.3270001
-0.84124857 -0.7832315 2.3430002
-0.8310715 -0.77788287 2.3270001
-0.83232296 -0.7832315 2.3430002
-0.82220674 -0.77788287 2.3270001
-0.82339722 -0.7832315 2.3430002
-0.81893432 -0.7832315 2.3430002
-0.81447148 -0.7832315 2.3430002
-0.81000859 -0.7832315 2.3430002
-0.80554575 -0.7832315 2.3430002
-0.80108291 -0.7832315 2.3430002
-0.79662001 -0.7832315 2.3430002
-0.79215723 -0.7832315 2.3430002
-0.78231525 -0.77788287 2.3270001
-0.77788287 -0.77788287 2.3270001
-0.77345049 -0.77788287 2.3270001
-0.75910389 -0.76785433 2.2970002
-0.75472867 -0.76785433 2.2970002
-0.74512672 -0.76250577 2.2810001
-0.74078196 -0.76250577 2.2810001
-0.73643714 -0.76250577 2.2810001
-0.73209238 -0.76250577 2.2810001
-0.72774768 -0.76250577 2.2810001
-0.72340292 -0.76250577 2.2810001
-0.71905816 -0.76250577 2.2810001
-0.71471334 -0.76250577 2.2810001
-0.71535152 -0.76785433 2.2970002
-0.71561909 -0.77286857 2.312
-0.71582955 -0.77788287 2.3270001
-0.71139717 -0.77788287 2.3270001
-0.70696479 -0.77788287 2.3270001
-0.70736295 -0.7832315 2.3430002
-0.70770007 -0.78858006 2.3590002
-0.70320672 -0.78858006 2.3590002
-0.69871336 -0.78858006 2.3590002
-0.69922286 -0.79426295 2.3760002
-0.6946972 -0.79426295 2.3760002
-0.69481909 -0.79961145 2.3920002
-0.69026291 -0.79961145 2.3920002
-0.68570673 -0.79961145 2.3920002
-0.68115056 -0.79961145 2.3920002
-0.67659438 -0.79961145 2.3920002
-0.67203814 -0.79961145 2.3920002
-0.66748196 -0.79961145 2.3920002
-0.66292578 -0.79961145 2.3920002
-0.6583696 -0.79961145 2.3920002
-0.65381336 -0.79961145 2.3920002
-0.64925718 -0.79961145 2.3920002
-0.644701 -0.79961145 2.3920002
-0.64014477 -0.79961145 2.3920002
-0.63558859 -0.79961145 2.3920002
-0.63551718 -0.80529433 2.4090002
-0.63092858 -0.80529433 2.4090002
-0.62634003 -0.80529433 2.4090002
-0.62175149 -0.80529433 2.4090002
-0.61716288 -0.80529433 2.4090002
-0.61257434 -0.80529433 2.4090002
-0.60798579 -0.80529433 2.4090002
-0.60339713 -0.80529433 2.4090002
-0.59880859 -0.80529433 2.4090002
-0.59422004 -0.80529433 2.4090002
-0.58963144 -0.80529433 2.4090002
-0.58504289 -0.80529433 2.4090002
-0.5845505 -0.81097722 2.4260001
-0.57992953 -0.81097722 2.4260001
-0.57530862 -0.81097722 2.4260001
-0.57068765 -0.81097722 2.4260001
-0.56606674 -0.81097722 2.4260001
-0.56538004 -0.81666005 2.4430001
-0.55682474 -0.81097722 2.4260001
-0.55220383 -0.81097722 2.4260001
-0.55142003 -0.81666005 2.4430001
-0.5467667 -0.81666005 2.4430001
-0.40031621 -0.60305148 1.8040001
-0.39688003 -0.60305148 1.8040001
-0.39344382 -0.60305148 1.8040001
-0.39000764 -0.60305148 1.8040001
-0.38657144 -0.60305148 1.8040001
-0.38313526 -0.60305148 1.8040001
-0.37969905 -0.60305148 1.8040001
-0.37626287 -0.60305148 1.8040001
-0.37282667 -0.60305148 1.8040001
-0.36754763 -0.60004288 1.7950001
-0.36412859 -0.60004288 1.7950001
nan nan nan
-0.47950572 -0.80529433 2.4090002
-0.47491717 -0.80529433 2.4090002
-0.4703286 -0.80529433 2.4090002
-0.46245337 -0.79961145 2.3920002
-0.46115148 -0.80529433 2.4090002
-0.45334098 -0.79961145 2.3920002
-0.4519743 -0.80529433 2.4090002
-0.44738573 -0.80529433 2.4090002
-0.44279718 -0.80529433 2.4090002
-0.43820858 -0.80529433 2.4090002
-0.43362001 -0.80529433 2.4090002
-0.42903146 -0.80529433 2.4090002
-0.42444289 -0.80529433 2.4090002
-0.41985428 -0.80529433 2.4090002
-0.4181962 -0.81097722 2.4260001
-0.41647336 -0.81666005 2.4430001
-0.41468573 -0.82234287 2.46
-0.41 -0.82234287 2.46
-0.4053143 -0.82234287 2.46
-0.40062857 -0.82234287 2.46
-0.39594287 -0.82234287 2.46
-0.39125714 -0.82234287 2.46
-0.38940004 -0.82836008 2.4780002
-0.38468003 -0.82836008 2.4780002
-0.37996003 -0.82836008 2.4780002
-0.37524 -0.82836008 2.4780002
-0.37052003 -0.82836008 2.4780002
-0.36580002 -0.82836008 2.4780002
-0.36108002 -0.82836008 2.4780002
-0.35636005 -0.82836008 2.4780002
-0.35164002 -0.82836008 2.4780002
-0.34692001 -0.82836008 2.4780002
-0.34220001 -0.82836008 2.4780002
-0.33748004 -0.82836008 2.4780002
-0.33276001 -0.82836008 2.4780002
-0.32804 -0.82836008 2.4780002
-0.32332003 -0.82836008 2.4780002
-0.31860003 -0.82836008 2.4780002
-0.31388003 -0.82836008 2.4780002
-0.30915999 -0.82836008 2.4780002
-0.30444002 -0.82836008 2.4780002
-0.29972002 -0.82836008 2.4780002
-0.29500002 -0.82836008 2.4780002
-0.29028001 -0.82836008 2.4780002
-0.28556001 -0.82836008 2.4780002
-0.28288001 -0.83437717 2.4960001
-0.27612001 -0.82836008 2.4780002
-0.27337143 -0.83437717 2.4960001
-0.26861715 -0.83437717 2.4960001
-0.26386285 -0.83437717 2.4960001
-0.25724003 -0.82836008 2.4780002
-0.25252002 -0.82836008 2.4780002
-0.24779999 -0.82836008 2.4780002
-0.24308002 -0.82836008 2.4780002
-0.23836002 -0.82836008 2.4780002
-0.23364002 -0.82836008 2.4780002
-0.20397717 -0.73810291 2.2080002
-0.19977143 -0.73810291 2.2080002
-0.19556573 -0.73810291 2.2080002
-0.19014667 -0.73342282 2.194
-0.18596762 -0.73342282 2.194
-0.18178858 -0.73342282 2.194
-0.17874287 -0.73810291 2.2080002
-0.17453715 -0.73810291 2.2080002
nan nan nan
nan nan nan
-0.13031334 -0.59402573 1.7770001
-0.12692858 -0.59402573 1.7770001
-0.12291811 -0.59101719 1.7680001
-0.11955048 -0.59101719 1.7680001
-0.11618286 -0.59101719 1.7680001
-0.11224096 -0.58800858 1.7590001
-0.10833334 -0.58500004 1.7500001
-0.105 -0.58500004 1.7500001
-0.10166667 -0.58500004 1.7500001
-0.098333336 -0.58500004 1.7500001
-0.095000006 -0.58500004 1.7500001
-0.091666676 -0.58500004 1.7500001
-0.088333338 -0.58500004 1.7500001
-0.085000008 -0.58500004 1.7500001
-0.081246674 -0.58199143 1.7410001
-0.07793048 -0.58199143 1.7410001
-0.074614286 -0.58199143 1.7410001
-0.071298093 -0.58199143 1.7410001
-0.067630477 -0.57898289 1.7320001
-0.064331435 -0.57898289 1.7320001
-0.061032388 -0.57898289 1.7320001
-0.057733335 -0.57898289 1.7320001
-0.054434288 -0.57898289 1.7320001
-0.051135242 -0.57898289 1.7320001
-0.047836196 -0.57898289 1.7320001
-0.044537146 -0.57898289 1.7320001
-0.041452382 -0.58199143 1.7410001
-0.038136192 -0.58199143 1.7410001
-0.034820002 -0.58199143 1.7410001
-0.031503811 -0.58199143 1.7410001
-0.028333334 -0.58500004 1.7500001
-0.025000002 -0.58500004 1.7500001
-0.021666668 -0.58500004 1.7500001
-0.018333334 -0.58500004 1.7500001
-0.015000001 -0.58500004 1.7500001
-0.011666668 -0.58500004 1.7500001
-0.0083333338 -0.58500004 1.7500001
-0.0050000004 -0.58500004 1.7500001
-0.0016752381 -0.58800858 1.7590001
0.0016752381 -0.58800858 1.7590001
0.0045600003 -0.53352004 1.5960001
0.0076000006 -0.53352004 1.5960001
0.010640001 -0.53352004 1.5960001
0.01368 -0.53352004 1.5960001
0.016646668 -0.53118002 1.5890001
0.019673334 -0.53118002 1.5890001
0.022585716 -0.52850574 1.5810001
0.025597144 -0.52850574 1.5810001
0.028608572 -0.52850574 1.5810001
0.03162 -0.52850574 1.5810001
0.034478098 -0.52616578 1.5740001
0.037476193 -0.52616578 1.5740001
0.040474288 -0.52616578 1.5740001
0.043472383 -0.52616578 1.5740001
0.046470478 -0.52616578 1.5740001
0.049248572 -0.52382576 1.567
0.052233335 -0.52382576 1.567
0.055218093 -0.52382576 1.567
0.058202859 -0.52382576 1.567
0.061187621 -0.52382576 1.567
0.064172387 -0.52382576 1.567
0.067157142 -0.52382576 1.567
0.06982857 -0.52148569 1.5600001
0.072800003 -0.52148569 1.5600001
0.075771436 -0.52148569 1.5600001
0.078742854 -0.52148569 1.5600001
0.081714287 -0.52148569 1.5600001
0.084685721 -0.52148569 1.5600001
0.087263815 -0.51914573 1.5530001
0.090221912 -0.51914573 1.5530001
0.093180001 -0.51914573 1.5530001
0.095704764 -0.51680577 1.5460001
0.098649532 -0.51680577 1.5460001
0.10113429 -0.51446575 1.539
0.10406572 -0.51446575 1.539
0.10699714 -0.51446575 1.539
0.10992857 -0.51446575 1.539
0.11286 -0.51446575 1.539
0.11579143 -0.51446575 1.539
0.11872286 -0.51446575 1.539
0.12165429 -0.51446575 1.539
0.12458572 -0.51446575 1.539
0.12751715 -0.51446575 1.539
0.12985525 -0.51212573 1.5320001
0.13277334 -0.51212573 1.5320001
0.13569143 -0.51212573 1.5320001
0.13860953 -0.51212573 1.5320001
0.14152762 -0.51212573 1.5320001
0.14444572 -0.51212573 1.5320001
0.14669049 -0.50978571 1.5250001
0.14959525 -0.50978571 1.5250001
0.15250002 -0.50978571 1.5250001
0.15479334 -0.50778002 1.5190001
0.15768667 -0.50778002 1.5190001
0.16058001 -0.50778002 1.5190001
0.16271999 -0.50544006 1.5120001
0.1656 -0.50544006 1.5120001
0.16848001 -0.50544006 1.5120001
0.17136 -0.50544006 1.5120001
0.17424001 -0.50544006 1.5120001
0.17712002 -0.50544006 1.5120001
0.18000001 -0.50544006 1.5120001
0.18288001 -0.50544006 1.5120001
0.18502286 -0.5034343 1.506
0.18789144 -0.5034343 1.506
0.19076 -0.5034343 1.506
0.19362858 -0.5034343 1.506
0.19649714 -0.5034343 1.506
0.19936571 -0.5034343 1.506
0.20129429 -0.50109434 1.4990001
0.20414953 -0.50109434 1.4990001
0.2060381 -0.49875429 1.4920001
0.20888002 -0.49875429 1.4920001
0.21087047 -0.49674857 1.4860001
0.21370097 -0.49674857 1.4860001
0.21653143 -0.49674857 1.4860001
0.21936192 -0.49674857 1.4860001
0.22219238 -0.49674857 1.4860001
0.22502287 -0.49674857 1.4860001
0.22785333 -0.49674857 1.4860001
0.23068382 -0.49674857 1.4860001
0.23351428 -0.49674857 1.4860001
0.23539048 -0.49474284 1.48
0.23820953 -0.49474284 1.48
0.24102858 -0.49474284 1.48
0.24384762 -0.49474284 1.48
0.24666667 -0.49474284 1.48
0.24830572 -0.49240285 1.473
0.25111145 -0.49240285 1.473
0.25391716 -0.49240285 1.473
0.25672287 -0.49240285 1.473
0.25847146 -0.49039719 1.4670001
0.26126572 -0.49039719 1.4670001
0.26406002 -0.49039719 1.4670001
0.26685432 -0.49039719 1.4670001
0.26854575 -0.48839146 1.4610001
0.27244288 -0.49039719 1.4670001
0.27411145 -0.48839146 1.4610001
0.2768943 -0.48839146 1.4610001
0.27967715 -0.48839146 1.4610001
0.28246 -0.48839146 1.4610001
0.28524286 -0.48839146 1.4610001
0.28802574 -0.48839146 1.4610001
0.28961429 -0.48638573 1.455
0.29238573 -0.48638573 1.455
0.29515713 -0.48638573 1.455
0.29792857 -0.48638573 1.455
0.30070001 -0.48638573 1.455
0.30347145 -0.48638573 1.455
0.30498004 -0.48438004 1.4490001
0.30774 -0.48438004 1.4490001
0.31050003 -0.48438004 1.4490001
0.31326002 -0.48438004 1.4490001
0.31602001 -0.48438004 1.4490001
0.31878003 -0.48438004 1.4490001
0.31887716 -0.48036858 1.437
0.3216143 -0.48036858 1.437
0.32570574 -0.48237431 1.4430001
0.32845429 -0.48237431 1.4430001
0.33120289 -0.48237431 1.4430001
0.33395144 -0.48237431 1.4430001
0.3353 -0.48036858 1.437
0.33803713 -0.48036858 1.437
0.33935145 -0.47836289 1.4310001
0.34207717 -0.47836289 1.4310001
0.34480289 -0.47836289 1.4310001
0.34752861 -0.47836289 1.4310001
0.3502543 -0.47836289 1.4310001
0.3515 -0.47635716 1.4250001
0.35421431 -0.47635716 1.4250001
0.35692859 -0.47635716 1.4250001
0.35812858 -0.47435144 1.419
0.36083144 -0.47435144 1.419
0.36353427 -0.47435144 1.419
0.36468861 -0.47234574 1.4130001
0.36894 -0.47435144 1.419
0.37007147 -0.47234574 1.4130001
0.37276289 -0.47234574 1.4130001
0.37545431 -0.47234574 1.4130001
0.37814575 -0.47234574 1.4130001
nan nan nan
nan nan nan
nan nan nan
nan nan nan
nan nan nan
nan nan nan
nan nan nan
nan nan nan
nan nan nan
nan nan nan
nan nan nan
nan nan nan
nan nan nan
0.81723148 -0.92831147 2.7770002
0.82252097 -0.92831147 2.7770002
0.82781053 -0.92831147 2.7770002
0.82620007 -0.92062289 2.7540002
0.83144575 -0.92062289 2.7540002
0.8366915 -0.92062289 2.7540002
0.84193718 -0.92062289 2.7540002
0.84718287 -0.92062289 2.7540002
0.85242862 -0.92062289 2.7540002
0.8576743 -0.92062289 2.7540002
0.86292005 -0.92062289 2.7540002
0.86816573 -0.92062289 2.7540002
0.87341154 -0.92062289 2.7540002
0.88599527 -0.92831147 2.7770002
0.89128482 -0.92831147 2.7770002
0.89657438 -0.92831147 2.7770002
0.90186387 -0.92831147 2.7770002
0.90715337 -0.92831147 2.7770002
0.91967148 -0.93566573 2.799
0.92500281 -0.93566573 2.799
0.93033427 -0.93566573 2.799
0.92831147 -0.92831147 2.7770002
0.94099712 -0.93566573 2.799
0.94632858 -0.93566573 2.799
0.95165998 -0.93566573 2.799
0.95699143 -0.93566573 2.799
0.97023046 -0.94335431 2.822
0.97560567 -0.94335431 2.822
0.98098099 -0.94335431 2.822
0.97831714 -0.93566573 2.799
0.9836486 -0.93566573 2.799
0.98897994 -0.93566573 2.799
0.99431139 -0.93566573 2.799
0.99178582 -0.92831147 2.7770002
1.0049742 -0.93566573 2.799
1.0103058 -0.93566573 2.799
1.0156372 -0.93566573 2.799
1.0209686 -0.93566573 2.799
1.0431666 -0.95104289 2.845
1.0485858 -0.95104289 2.845
1.0540047 -0.95104289 2.845
1.0594238 -0.95104289 2.845
1.0648428 -0.95104289 2.845
1.070262 -0.95104289 2.845
1.0756809 -0.95104289 2.845
1.07236 -0.94335431 2.822
1.0777353 -0.94335431 2.822
1.0831105 -0.94335431 2.822
1.0884857 -0.94335431 2.822
1.0938609 -0.94335431 2.822
1.0992361 -0.94335431 2.822
1.1046114 -0.94335431 2.822
1.1099867 -0.94335431 2.822
1.1153619 -0.94335431 2.822
1.1207372 -0.94335431 2.822
1.1352905 -0.95104289 2.845
1.1407095 -0.95104289 2.845
1.1461287 -0.95104289 2.845
1.1515476 -0.95104289 2.845
1.1569667 -0.95104289 2.845
1.1623857 -0.95104289 2.845
1.1678048 -0.95104289 2.845
1.1637391 -0.94335431 2.822
1.1691144 -0.94335431 2.822
1.1744895 -0.94335431 2.822
1.1894809 -0.95104289 2.845
1.1949 -0.95104289 2.845
1.2003191 -0.95104289 2.845
1.2057381 -0.95104289 2.845
1.2111571 -0.95104289 2.845
1.2165762 -0.95104289 2.845
1.2219952 -0.95104289 2.845
1.2274143 -0.95104289 2.845
1.2328333 -0.95104289 2.845
1.2382524 -0.95104289 2.845
1.2436714 -0.95104289 2.845
1.2490906 -0.95104289 2.845
1.2545094 -0.95104289 2.845
1.2599286 -0.95104289 2.845
1.2653476 -0.95104289 2.845
1.2707667 -0.95104289 2.845
1.2761858 -0.95104289 2.845
1.2712438 -0.94335431 2.822
1.2766191 -0.94335431 2.822
1.2924429 -0.95104289 2.845
1.2978619 -0.95104289 2.845
1.3032809 -0.95104289 2.845
1.3087 -0.95104289 2.845
1.3141191 -0.95104289 2.845
1.3195381 -0.95104289 2.845
1.3249571 -0.95104289 2.845
1.3303761 -0.95104289 2.845
1.3249961 -0.94335431 2.822
1.3412143 -0.95104289 2.845
1.3466333 -0.95104289 2.845
1.3520525 -0.95104289 2.845
1.3464972 -0.94335431 2.822
1.3628905 -0.95104289 2.845
1.3683095 -0.95104289 2.845
nan nan nan
nan nan nan
nan nan nan
nan nan nan
nan nan nan
nan nan nan
nan nan nan
0.85096669 -0.5733 1.715
0.84975052 -0.57029146 1.7060001
0.84899998 -0.56761718 1.6980001
0.8522343 -0.56761718 1.6980001
0.85143811 -0.56494284 1.6900001
0.85465717 -0.56494284 1.6900001
0.85330766 -0.56193435 1.6810001
0.85243338 -0.55926001 1.6730001
0.85562003 -0.55926001 1.6730001
0.85470003 -0.55658573 1.6650001
0.85374951 -0.55391139 1.6570001
0.8527686 -0.55123717 1.649
0.84397149 -0.54354858 1.626
0.84706855 -0.54354858 1.626
0.84598291 -0.5408743 1.618
0.8532629 -0.54354858 1.626
0.85636002 -0.54354858 1.626
0.85945719 -0.54354858 1.626
0.85459715 -0.53853428 1.6110001
0.85340667 -0.53586 1.603
0.85272002 -0.53352004 1.5960001
0.85576004 -0.53352004 1.5960001
0.85503334 -0.53118002 1.5890001
0.85806006 -0.53118002 1.5890001
0.85675144 -0.52850574 1.5810001
0.85976291 -0.52850574 1.5810001
0.86277431 -0.52850574 1.5810001
nan nan nan
nan nan nan
nan nan nan
nan nan nan
nan nan nan
nan nan nan
nan nan nan
nan nan nan
nan nan nan
nan nan nan
nan nan nan
nan nan nan
nan nan nan
nan nan nan
nan nan nan
nan nan nan
nan nan nan
nan nan nan
nan nan nan
nan nan nan
nan nan nan
nan nan nan
nan nan nan
nan nan nan
nan nan nan
nan nan nan
nan nan nan
nan nan nan
nan nan nan
nan nan nan
nan nan nan
nan nan nan
nan nan nan
nan nan nan
nan nan nan
nan nan nan
nan nan nan
nan nan nan
nan nan nan
nan nan nan
nan nan nan
nan nan nan
nan nan nan
nan nan nan
nan nan nan
nan nan nan
nan nan nan
nan nan nan
nan nan nan
nan nan nan
nan nan nan
nan nan nan
nan nan nan
nan nan nan
nan nan nan
nan nan nan
nan nan nan
nan nan nan
nan nan nan
nan nan nan
nan nan nan
nan nan nan
nan nan nan
nan nan nan
nan nan nan
nan nan nan
nan nan nan
nan nan nan
nan nan nan
nan nan nan
nan nan nan
nan nan nan
nan nan nan
nan nan nan
nan nan nan
nan nan nan
nan nan nan
nan nan nan
nan nan nan
nan nan nan
nan nan nan
nan nan nan
nan nan nan
nan nan nan
nan nan nan
nan nan nan
nan nan nan
nan nan nan
nan nan nan
nan nan nan
nan nan nan
nan nan nan
nan nan nan
-0.71325433 -0.47962573 1.4430001
-0.71050578 -0.47962573 1.4430001
-0.70775717 -0.47962573 1.4430001
-0.70500857 -0.47962573 1.4430001
-0.70226002 -0.47962573 1.4430001
-0.69951147 -0.47962573 1.4430001
-0.69676286 -0.47962573 1.4430001
-0.68824285 -0.47563717 1.4310001
-0.68551719 -0.47563717 1.4310001
nan nan nan
nan nan nan
-1.0872468 -0.76347911 2.2970002
-1.0753287 -0.75816095 2.2810001
-1.0709839 -0.75816095 2.2810001
-1.0666391 -0.75816095 2.2810001
-1.0553086 -0.7531752 2.266
-1.0579495 -0.75816095 2.2810001
-1.0536048 -0.75816095 2.2810001
-1.04926 -0.75816095 2.2810001
-1.0449152 -0.75816095 2.2810001
-1.0405706 -0.75816095 2.2810001
-1.0362258 -0.75816095 2.2810001
-1.031881 -0.75816095 2.2810001
-1.0275363 -0.75816095 2.2810001
-1.0231915 -0.75816095 2.2810001
-1.0188468 -0.75816095 2.2810001
-1.0145019 -0.75816095 2.2810001
-1.0101572 -0.75816095 2.2810001
-1.0058124 -0.75816095 2.2810001
-1.0014676 -0.75816095 2.2810001
-0.99712282 -0.75816095 2.2810001
-0.99277818 -0.75816095 2.2810001
-0.98843342 -0.75816095 2.2810001
-0.98408866 -0.75816095 2.2810001
-0.9797439 -0.75816095 2.2810001
-0.98224097 -0.76347911 2.2970002
-0.97786576 -0.76347911 2.2970002
-0.97349054 -0.76347911 2.2970002
-0.96911526 -0.76347911 2.2970002
-0.96474004 -0.76347911 2.2970002
-0.95367527 -0.75816095 2.2810001
-0.9559896 -0.76347911 2.2970002
-0.94498575 -0.75816095 2.2810001
-0.9472391 -0.76347911 2.2970002
-0.93629628 -0.75816095 2.2810001
-0.93848866 -0.76347911 2.2970002
-0.93411338 -0.76347911 2.2970002
-0.92973816 -0.76347911 2.2970002
-0.92536288 -0.76347911 2.2970002
-0.92098767 -0.76347911 2.2970002
-0.91661245 -0.76347911 2.2970002
-0.91223717 -0.76347911 2.2970002
-0.90786195 -0.76347911 2.2970002
-0.90348673 -0.76347911 2.2970002
-0.89911151 -0.76347911 2.2970002
-0.89473629 -0.76347911 2.2970002
-0.89617527 -0.76846474 2.312
-0.88598579 -0.76347911 2.2970002
-0.88161051 -0.76347911 2.2970002
-0.88296378 -0.76846474 2.312
-0.87856001 -0.76846474 2.312
-0.87982762 -0.77345049 2.3270001
-0.87539524 -0.77345049 2.3270001
-0.87096292 -0.77345049 2.3270001
-0.86653054 -0.77345049 2.3270001
-0.86209816 -0.77345049 2.3270001
-0.85766578 -0.77345049 2.3270001
-0.85910004 -0.7787686 2.3430002
-0.84880096 -0.77345049 2.3270001
-0.84436858 -0.77345049 2.3270001
-0.8399362 -0.77345049 2.3270001
-0.83550388 -0.77345049 2.3270001
-0.8310715 -0.77345049 2.3270001
-0.82663912 -0.77345049 2.3270001
-0.82220674 -0.77345049 2.3270001
-0.8177743 -0.77345049 2.3270001
-0.81334192 -0.77345049 2.3270001
-0.80890954 -0.77345049 2.3270001
-0.80447716 -0.77345049 2.3270001
-0.80554575 -0.7787686 2.3430002
-0.79561245 -0.77345049 2.3270001
-0.79118007 -0.77345049 2.3270001
-0.78674763 -0.77345049 2.3270001
-0.77727234 -0.76846474 2.312
-0.77286857 -0.76846474 2.312
-0.76846474 -0.76846474 2.312
-0.75381619 -0.75816095 2.2810001
-0.74947149 -0.75816095 2.2810001
-0.74512672 -0.75816095 2.2810001
-0.74078196 -0.75816095 2.2810001
-0.73643714 -0.75816095 2.2810001
-0.73209238 -0.75816095 2.2810001
-0.72774768 -0.75816095 2.2810001
-0.72340292 -0.75816095 2.2810001
-0.71905816 -0.75816095 2.2810001
-0.71972674 -0.76347911 2.2970002
-0.71535152 -0.76347911 2.2970002
-0.71097624 -0.76347911 2.2970002
-0.71582955 -0.77345049 2.3270001
-0.71139717 -0.77345049 2.3270001
-0.71182573 -0.7787686 2.3430002
-0.70736295 -0.7787686 2.3430002
-0.70770007 -0.7840867 2.3590002
-0.7082743 -0.78973716 2.3760002
-0.70374858 -0.78973716 2.3760002
-0.69922286 -0.78973716 2.3760002
-0.6946972 -0.78973716 2.3760002
-0.69017148 -0.78973716 2.3760002
-0.68564576 -0.78973716 2.3760002
-0.68570673 -0.79505527 2.3920002
-0.68115056 -0.79505527 2.3920002
-0.67659438 -0.79505527 2.3920002
-0.67203814 -0.79505527 2.3920002
-0.66748196 -0.79505527 2.3920002
-0.66292578 -0.79505527 2.3920002
-0.6583696 -0.79505527 2.3920002
-0.65381336 -0.79505527 2.3920002
-0.64925718 -0.79505527 2.3920002
-0.644701 -0.79505527 2.3920002
-0.64014477 -0.79505527 2.3920002
-0.63558859 -0.79505527 2.3920002
-0.63103241 -0.79505527 2.3920002
-0.62647623 -0.79505527 2.3920002
-0.62634003 -0.80070573 2.4090002
-0.62175149 -0.80070573 2.4090002
-0.61716288 -0.80070573 2.4090002
-0.61257434 -0.80070573 2.4090002
-0.60798579 -0.80070573 2.4090002
-0.60339713 -0.80070573 2.4090002
-0.59880859 -0.80070573 2.4090002
-0.59422004 -0.80070573 2.4090002
-0.58963144 -0.80070573 2.4090002
-0.58504289 -0.80070573 2.4090002
-0.58045435 -0.80070573 2.4090002
-0.57992953 -0.80635619 2.4260001
-0.57530862 -0.80635619 2.4260001
-0.57068765 -0.80635619 2.4260001
-0.56606674 -0.80635619 2.4260001
-0.56144571 -0.80635619 2.4260001
-0.55682474 -0.80635619 2.4260001
-0.55220383 -0.80635619 2.4260001
-0.54758286 -0.80635619 2.4260001
-0.5467667 -0.81200671 2.4430001
-0.40253526 -0.60293907 1.8140001
-0.39908001 -0.60293907 1.8140001
-0.39562479 -0.60293907 1.8140001
-0.39000764 -0.59961528 1.8040001
-0.38657144 -0.59961528 1.8040001
-0.38313526 -0.59961528 1.8040001
-0.37969905 -0.59961528 1.8040001
-0.37626287 -0.59961528 1.8040001
-0.37282667 -0.59961528 1.8040001
-0.36939049 -0.59961528 1.8040001
-0.36412859 -0.59662384 1.7950001
-0.36070955 -0.59662384 1.7950001
-0.47950572 -0.80070573 2.4090002
-0.47491717 -0.80070573 2.4090002
-0.4703286 -0.80070573 2.4090002
-0.46245337 -0.79505527 2.3920002
-0.45789719 -0.79505527 2.3920002
-0.45334098 -0.79505527 2.3920002
-0.4487848 -0.79505527 2.3920002
-0.44422859 -0.79505527 2.3920002
-0.43967241 -0.79505527 2.3920002
-0.43511623 -0.79505527 2.3920002
-0.43056002 -0.79505527 2.3920002
-0.42903146 -0.80070573 2.4090002
-0.42444289 -0.80070573 2.4090002
-0.41985428 -0.80070573 2.4090002
-0.41526574 -0.80070573 2.4090002
-0.41357526 -0.80635619 2.4260001
-0.41181999 -0.81200671 2.4430001
-0.40716669 -0.81200671 2.4430001
-0.40251333 -0.81200671 2.4430001
-0.40062857 -0.81765717 2.46
-0.39594287 -0.81765717 2.46
-0.39125714 -0.81765717 2.46
-0.38657141 -0.81765717 2.46
-0.38468003 -0.82364005 2.4780002
-0.37996003 -0.82364005 2.4780002
-0.37524 -0.82364005 2.4780002
-0.37052003 -0.82364005 2.4780002
-0.36580002 -0.82364005 2.4780002
-0.36108002 -0.82364005 2.4780002
-0.35636005 -0.82364005 2.4780002
-0.35164002 -0.82364005 2.4780002
-0.34692001 -0.82364005 2.4780002
-0.34220001 -0.82364005 2.4780002
-0.33748004 -0.82364005 2.4780002
-0.33276001 -0.82364005 2.4780002
-0.32804 -0.82364005 2.4780002
-0.32332003 -0.82364005 2.4780002
-0.31860003 -0.82364005 2.4780002
-0.31388003 -0.82364005 2.4780002
-0.30915999 -0.82364005 2.4780002
-0.30444002 -0.82364005 2.4780002
-0.29972002 -0.82364005 2.4780002
-0.29500002 -0.82364005 2.4780002
-0.29028001 -0.82364005 2.4780002
-0.28556001 -0.82364005 2.4780002
-0.28084001 -0.82364005 2.4780002
-0.27612001 -0.82364005 2.4780002
-0.27140003 -0.82364005 2.4780002
-0.26668 -0.82364005 2.4780002
-0.26196 -0.82364005 2.4780002
-0.25724003 -0.82364005 2.4780002
-0.25252002 -0.82364005 2.4780002
-0.24779999 -0.82364005 2.4780002
-0.24308002 -0.82364005 2.4780002
-0.23836002 -0.82364005 2.4780002
-0.23364002 -0.82364005 2.4780002
-0.20536287 -0.7388829 2.223
-0.20112857 -0.7388829 2.223
-0.19556573 -0.73389715 2.2080002
-0.19136001 -0.73389715 2.2080002
-0.18715431 -0.73389715 2.2080002
-0.18294857 -0.73389715 2.2080002
-0.17874287 -0.73389715 2.2080002
-0.17453715 -0.73389715 2.2080002
-0.13916571 -0.59961528 1.8040001
-0.13505238 -0.59662384 1.7950001
-0.13097334 -0.5936324 1.7860001
-0.12692858 -0.59064096 1.7770001
-0.12291811 -0.58764958 1.7680001
-0.11955048 -0.58764958 1.7680001
-0.11618286 -0.58764958 1.7680001
-0.11224096 -0.58465815 1.7590001
-0.10889048 -0.58465815 1.7590001
-0.10554 -0.58465815 1.7590001
-0.10166667 -0.58166671 1.7500001
-0.098333336 -0.58166671 1.7500001
-0.095000006 -0.58166671 1.7500001
-0.091666676 -0.58166671 1.7500001
-0.088333338 -0.58166671 1.7500001
-0.085000008 -0.58166671 1.7500001
-0.081666671 -0.58166671 1.7500001
-0.07793048 -0.57867521 1.7410001
-0.074614286 -0.57867521 1.7410001
-0.071298093 -0.57867521 1.7410001
-0.067630477 -0.57568383 1.7320001
-0.064331435 -0.57568383 1.7320001
-0.061032388 -0.57568383 1.7320001
-0.057733335 -0.57568383 1.7320001
-0.054434288 -0.57568383 1.7320001
-0.051135242 -0.57568383 1.7320001
-0.047836196 -0.57568383 1.7320001
-0.044768572 -0.57867521 1.7410001
-0.041452382 -0.57867521 1.7410001
-0.038136192 -0.57867521 1.7410001
-0.034820002 -0.57867521 1.7410001
-0.03166667 -0.58166671 1.7500001
-0.028333334 -0.58166671 1.7500001
-0.025000002 -0.58166671 1.7500001
-0.021666668 -0.58166671 1.7500001
-0.018333334 -0.58166671 1.7500001
-0.015000001 -0.58166671 1.7500001
-0.011666668 -0.58166671 1.7500001
-0.0083333338 -0.58166671 1.7500001
-0.0050257146 -0.58465815 1.7590001
-0.0016752381 -0.58465815 1.7590001
0.0016752381 -0.58465815 1.7590001
0.0045600003 -0.53048003 1.5960001
0.0076000006 -0.53048003 1.5960001
0.010640001 -0.53048003 1.5960001
0.01368 -0.53048003 1.5960001
0.016720001 -0.53048003 1.5960001
0.019760001 -0.53048003 1.5960001
0.022700001 -0.52815336 1.5890001
0.025726669 -0.52815336 1.5890001
0.028753335 -0.52815336 1.5890001
0.031780005 -0.52815336 1.5890001
0.034631431 -0.52549434 1.5810001
0.037642859 -0.52549434 1.5810001
0.040474288 -0.52316767 1.5740001
0.043472383 -0.52316767 1.5740001
0.046470478 -0.52316767 1.5740001
0.049468577 -0.52316767 1.5740001
0.052466668 -0.52316767 1.5740001
0.055464763 -0.52316767 1.5740001
0.058462862 -0.52316767 1.5740001
0.061187621 -0.52084094 1.567
0.064172387 -0.52084094 1.567
0.067157142 -0.52084094 1.567
0.070141904 -0.52084094 1.567
0.073126674 -0.52084094 1.567
0.076111428 -0.52084094 1.567
0.079096191 -0.52084094 1.567
0.082080953 -0.52084094 1.567
0.084685721 -0.51851428 1.5600001
0.087263815 -0.51618761 1.5530001
0.090221912 -0.51618761 1.5530001
0.093180001 -0.51618761 1.5530001
0.095704764 -0.51386094 1.5460001
0.098649532 -0.51386094 1.5460001
0.10159429 -0.51386094 1.5460001
0.10453905 -0.51386094 1.5460001
0.10748382 -0.51386094 1.5460001
0.11042858 -0.51386094 1.5460001
0.11286 -0.51153427 1.539
0.11579143 -0.51153427 1.539
0.11872286 -0.51153427 1.539
0.12165429 -0.51153427 1.539
0.12458572 -0.51153427 1.539
0.12751715 -0.51153427 1.539
0.12985525 -0.50920767 1.5320001
0.13338 -0.51153427 1.539
0.13631143 -0.51153427 1.539
0.13860953 -0.50920767 1.5320001
0.14152762 -0.50920767 1.5320001
0.14444572 -0.50920767 1.5320001
0.14736381 -0.50920767 1.5320001
0.15028191 -0.50920767 1.5320001
0.15250002 -0.506881 1.5250001
0.15540476 -0.506881 1.5250001
0.15768667 -0.50488669 1.5190001
0.16058001 -0.50488669 1.5190001
0.16271999 -0.50256002 1.5120001
0.1656 -0.50256002 1.5120001
0.16848001 -0.50256002 1.5120001
0.17136 -0.50256002 1.5120001
0.17424001 -0.50256002 1.5120001
0.17641714 -0.50056571 1.506
0.18000001 -0.50256002 1.5120001
0.1821543 -0.50056571 1.506
0.18502286 -0.50056571 1.506
0.18789144 -0.50056571 1.506
0.19076 -0.50056571 1.506
0.19362858 -0.50056571 1.506
0.19649714 -0.50056571 1.506
0.19936571 -0.50056571 1.506
0.20129429 -0.49823904 1.4990001
0.20414953 -0.49823904 1.4990001
0.2060381 -0.49591237 1.4920001
0.20888002 -0.49591237 1.4920001
0.21087047 -0.49391809 1.4860001
0.21370097 -0.49391809 1.4860001
0.21653143 -0.49391809 1.4860001
0.21936192 -0.49391809 1.4860001
0.22219238 -0.49391809 1.4860001
0.22502287 -0.49391809 1.4860001
0.22785333 -0.49391809 1.4860001
0.23068382 -0.49391809 1.4860001
0.23351428 -0.49391809 1.4860001
0.23634477 -0.49391809 1.4860001
0.23917525 -0.49391809 1.4860001
0.24102858 -0.49192381 1.48
0.24384762 -0.49192381 1.48
0.24666667 -0.49192381 1.48
0.2494857 -0.49192381 1.48
0.25111145 -0.48959717 1.473
0.25391716 -0.48959717 1.473
0.25672287 -0.48959717 1.473
0.25847146 -0.48760289 1.4670001
0.26233429 -0.48959717 1.473
0.26406002 -0.48760289 1.4670001
0.26685432 -0.48760289 1.4670001
0.26964858 -0.48760289 1.4670001
0.27244288 -0.48760289 1.4670001
0.27523717 -0.48760289 1.4670001
0.27803144 -0.48760289 1.4670001
0.28082573 -0.48760289 1.4670001
0.28246 -0.48560861 1.4610001
0.28524286 -0.48560861 1.4610001
0.28802574 -0.48560861 1.4610001
0.29080859 -0.48560861 1.4610001
0.29238573 -0.4836143 1.455
0.29515713 -0.4836143 1.455
0.29792857 -0.4836143 1.455
0.30070001 -0.4836143 1.455
0.30347145 -0.4836143 1.455
0.30498004 -0.48162004 1.4490001
0.30901429 -0.4836143 1.455
0.31050003 -0.48162004 1.4490001
0.31326002 -0.48162004 1.4490001
0.31602001 -0.48162004 1.4490001
0.31878003 -0.48162004 1.4490001
0.32020858 -0.47962573 1.4430001
0.32430002 -0.48162004 1.4490001
0.32435143 -0.47763142 1.437
0.32845429 -0.47962573 1.4430001
0.33120289 -0.47962573 1.4430001
0.33395144 -0.47962573 1.4430001
0.3353 -0.47763142 1.437
0.33803713 -0.47763142 1.437
0.33935145 -0.47563717 1.4310001
0.34207717 -0.47563717 1.4310001
0.34480289 -0.47563717 1.4310001
0.34752861 -0.47563717 1.4310001
0.3502543 -0.47563717 1.4310001
0.35298002 -0.47563717 1.4310001
0.35421431 -0.47364286 1.4250001
0.35692859 -0.47364286 1.4250001
0.35964289 -0.47364286 1.4250001
0.36235714 -0.47364286 1.4250001
0.36353427 -0.47164857 1.419
0.36623716 -0.47164857 1.419
0.36894 -0.47164857 1.419
0.37164286 -0.47164857 1.419
0.37434572 -0.47164857 1.419
0.37704858 -0.47164857 1.419
nan nan nan
nan nan nan
nan nan nan
nan nan nan
nan nan nan
nan nan nan
nan nan nan
nan nan nan
nan nan nan
nan nan nan
nan nan nan
nan nan nan
nan nan nan
nan nan nan
0.81723148 -0.92302197 2.7770002
0.81570864 -0.9153772 2.7540002
0.82095432 -0.9153772 2.7540002
0.82620007 -0.9153772 2.7540002
0.83144575 -0.9153772 2.7540002
0.8366915 -0.9153772 2.7540002
0.84193718 -0.9153772 2.7540002
0.84718287 -0.9153772 2.7540002
0.85242862 -0.9153772 2.7540002
0.8576743 -0.9153772 2.7540002
0.86292005 -0.9153772 2.7540002
0.86816573 -0.9153772 2.7540002
0.87341154 -0.9153772 2.7540002
0.88599527 -0.92302197 2.7770002
0.88390291 -0.9153772 2.7540002
0.88914865 -0.9153772 2.7540002
0.90186387 -0.92302197 2.7770002
0.90715337 -0.92302197 2.7770002
0.91244292 -0.92302197 2.7770002
0.91773242 -0.92302197 2.7770002
0.92302197 -0.92302197 2.7770002
0.92831147 -0.92302197 2.7770002
0.93360102 -0.92302197 2.7770002
0.93889052 -0.92302197 2.7770002
0.94418001 -0.92302197 2.7770002
0.94946957 -0.92302197 2.7770002
0.96232289 -0.93033427 2.799
0.96765429 -0.93033427 2.799
0.97298568 -0.93033427 2.799
0.97831714 -0.93033427 2.799
0.97591716 -0.92302197 2.7770002
0.98897994 -0.93033427 2.799
0.99431139 -0.93033427 2.799
0.99178582 -0.92302197 2.7770002
1.0049742 -0.93033427 2.799
1.0023648 -0.92302197 2.7770002
1.0076544 -0.92302197 2.7770002
1.0209686 -0.93033427 2.799
1.0347333 -0.93797904 2.822
1.0485858 -0.94562382 2.845
1.0540047 -0.94562382 2.845
1.0594238 -0.94562382 2.845
1.0648428 -0.94562382 2.845
1.070262 -0.94562382 2.845
1.0756809 -0.94562382 2.845
1.0811 -0.94562382 2.845
1.0777353 -0.93797904 2.822
1.0831105 -0.93797904 2.822
1.0884857 -0.93797904 2.822
1.0938609 -0.93797904 2.822
1.0992361 -0.93797904 2.822
1.1046114 -0.93797904 2.822
1.1099867 -0.93797904 2.822
1.1153619 -0.93797904 2.822
1.1207372 -0.93797904 2.822
1.1352905 -0.94562382 2.845
1.1407095 -0.94562382 2.845
1.1461287 -0.94562382 2.845
1.1515476 -0.94562382 2.845
1.1569667 -0.94562382 2.845
1.1623857 -0.94562382 2.845
1.1678048 -0.94562382 2.845
1.1637391 -0.93797904 2.822
1.1691144 -0.93797904 2.822
1.1744895 -0.93797904 2.822
1.1894809 -0.94562382 2.845
1.1949 -0.94562382 2.845
1.2003191 -0.94562382 2.845
1.2057381 -0.94562382 2.845
1.2111571 -0.94562382 2.845
1.2165762 -0.94562382 2.845
1.2219952 -0.94562382 2.845
1.2274143 -0.94562382 2.845
1.2328333 -0.94562382 2.845
1.2382524 -0.94562382 2.845
1.2436714 -0.94562382 2.845
1.2490906 -0.94562382 2.845
1.2545094 -0.94562382 2.845
1.2599286 -0.94562382 2.845
1.2551181 -0.93797904 2.822
1.2707667 -0.94562382 2.845
1.2658685 -0.93797904 2.822
1.2712438 -0.93797904 2.822
1.2766191 -0.93797904 2.822
1.2819942 -0.93797904 2.822
1.2978619 -0.94562382 2.845
1.3032809 -0.94562382 2.845
1.29812 -0.93797904 2.822
1.2827096 -0.92302197 2.7770002
1.3195381 -0.94562382 2.845
1.3249571 -0.94562382 2.845
1.3303761 -0.94562382 2.845
1.3249961 -0.93797904 2.822
1.3303714 -0.93797904 2.822
1.3466333 -0.94562382 2.845
1.3520525 -0.94562382 2.845
1.3464972 -0.93797904 2.822
1.3628905 -0.94562382 2.845
1.3683095 -0.94562382 2.845
nan nan nan
nan nan nan
nan nan nan
nan nan nan
nan nan nan
nan nan nan
nan nan nan
0.85096669 -0.57003337 1.715
0.84975052 -0.56704193 1.7060001
0.84899998 -0.56438291 1.6980001
0.84821904 -0.56172383 1.6900001
0.85143811 -0.56172383 1.6900001
0.85010576 -0.55873245 1.6810001
0.85330766 -0.55873245 1.6810001
0.85243338 -0.55607337 1.6730001
0.85562003 -0.55607337 1.6730001
0.85470003 -0.55341429 1.6650001
0.84962761 -0.54809624 1.649
0.8527686 -0.54809624 1.649
0.84397149 -0.54045141 1.626
0.85123622 -0.54311055 1.6340001
0.85016572 -0.54045141 1.626
0.8532629 -0.54045141 1.626
0.85214669 -0.53779238 1.618
0.85522854 -0.53779238 1.618
0.84664005 -0.53048003 1.5960001
0.85340667 -0.53280669 1.603
0.85272002 -0.53048003 1.5960001
0.85576004 -0.53048003 1.5960001
0.85503334 -0.52815336 1.5890001
0.85806006 -0.52815336 1.5890001
0.85675144 -0.52549434 1.5810001
0.85595626 -0.52316767 1.5740001
0.85895431 -0.52316767 1.5740001
nan nan nan
nan nan nan
nan nan nan
nan nan nan
nan nan nan
nan nan nan
nan nan nan
nan nan nan
nan nan nan
nan nan nan
nan nan nan
nan nan nan
nan nan nan
nan nan nan
nan nan nan
nan nan nan
nan nan nan
nan nan nan
nan nan nan
nan nan nan
nan nan nan
nan nan nan
nan nan nan
nan nan nan
nan nan nan
nan nan nan
nan nan nan
nan nan nan
nan nan nan
nan nan nan
nan nan nan
nan nan nan
nan nan nan
nan nan nan
nan nan nan
nan nan nan
nan nan nan
nan nan nan
nan nan nan
nan nan nan
nan nan nan
nan nan nan
nan nan nan
nan nan nan
nan nan nan
nan nan nan
nan nan nan
nan nan nan
nan nan nan
nan nan nan
nan nan nan
nan nan nan
nan nan nan
nan nan nan
nan nan nan
nan nan nan
nan nan nan
nan nan nan
nan nan nan
nan nan nan
nan nan nan
nan nan nan
nan nan nan
nan nan nan
nan nan nan
nan nan nan
nan nan nan
nan nan nan
nan nan nan
nan nan nan
nan nan nan
nan nan nan
nan nan nan
nan nan nan
nan nan nan
nan nan nan
nan nan nan
nan nan nan
nan nan nan
nan nan nan
nan nan nan
nan nan nan
nan nan nan
nan nan nan
nan nan nan
nan nan nan
nan nan nan
nan nan nan
nan nan nan
nan nan nan
nan nan nan
nan nan nan
nan nan nan
-0.71918571 -0.48084286 1.455
-0.71641433 -0.48084286 1.455
-0.70775717 -0.47687718 1.4430001
-0.70500857 -0.47687718 1.4430001
-0.70226002 -0.47687718 1.4430001
-0.69951147 -0.47687718 1.4430001
-0.69676286 -0.47687718 1.4430001
-0.69112855 -0.47489429 1.437
-0.68839145 -0.47489429 1.437
nan nan nan
nan nan nan
nan nan nan
-1.0753287 -0.75381619 2.2810001
-1.063941 -0.74885905 2.266
-1.0596247 -0.74885905 2.266
-1.0553086 -0.74885905 2.266
-1.044499 -0.74423242 2.2520001
-1.0402097 -0.74423242 2.2520001
-1.03592 -0.74423242 2.2520001
-1.0380439 -0.74885905 2.266
-1.0337276 -0.74885905 2.266
-1.0294114 -0.74885905 2.266
-1.031881 -0.75381619 2.2810001
-1.0275363 -0.75381619 2.2810001
-1.0231915 -0.75381619 2.2810001
-1.0188468 -0.75381619 2.2810001
-1.0145019 -0.75381619 2.2810001
-1.0035143 -0.74885905 2.266
-0.99919802 -0.74885905 2.266
-0.99488187 -0.74885905 2.266
-0.99056572 -0.74885905 2.266
-0.99277818 -0.75381619 2.2810001
-0.98843342 -0.75381619 2.2810001
-0.98408866 -0.75381619 2.2810001
-0.9797439 -0.75381619 2.2810001
-0.97539908 -0.75381619 2.2810001
-0.97105432 -0.75381619 2.2810001
-0.96670955 -0.75381619 2.2810001
-0.96236479 -0.75381619 2.2810001
-0.96474004 -0.75910389 2.2970002
-0.95367527 -0.75381619 2.2810001
-0.9559896 -0.75910389 2.2970002
-0.94498575 -0.75381619 2.2810001
-0.9472391 -0.75910389 2.2970002
-0.94286388 -0.75910389 2.2970002
-0.93848866 -0.75910389 2.2970002
-0.93411338 -0.75910389 2.2970002
-0.92973816 -0.75910389 2.2970002
-0.92536288 -0.75910389 2.2970002
-0.92098767 -0.75910389 2.2970002
-0.91661245 -0.75910389 2.2970002
-0.91223717 -0.75910389 2.2970002
-0.90786195 -0.75910389 2.2970002
-0.90348673 -0.75910389 2.2970002
-0.89911151 -0.75910389 2.2970002
-0.89473629 -0.75910389 2.2970002
-0.89036101 -0.75910389 2.2970002
-0.88598579 -0.75910389 2.2970002
-0.88161051 -0.75910389 2.2970002
-0.88296378 -0.76406097 2.312
-0.87856001 -0.76406097 2.312
-0.87415618 -0.76406097 2.312
-0.86975235 -0.76406097 2.312
-0.87096292 -0.76901811 2.3270001
-0.86653054 -0.76901811 2.3270001
-0.86209816 -0.76901811 2.3270001
-0.85766578 -0.76901811 2.3270001
-0.8532334 -0.76901811 2.3270001
-0.84880096 -0.76901811 2.3270001
-0.84436858 -0.76901811 2.3270001
-0.8399362 -0.76901811 2.3270001
-0.83550388 -0.76901811 2.3270001
-0.8310715 -0.76901811 2.3270001
-0.82663912 -0.76901811 2.3270001
-0.82220674 -0.76901811 2.3270001
-0.8177743 -0.76901811 2.3270001
-0.81334192 -0.76901811 2.3270001
-0.80890954 -0.76901811 2.3270001
-0.80447716 -0.76901811 2.3270001
-0.80004483 -0.76901811 2.3270001
-0.79048377 -0.76406097 2.312
-0.78608 -0.76406097 2.312
-0.78167617 -0.76406097 2.312
-0.76180762 -0.74885905 2.266
-0.75749147 -0.74885905 2.266
-0.75816095 -0.75381619 2.2810001
-0.74885905 -0.74885905 2.266
-0.7445429 -0.74885905 2.266
-0.74512672 -0.75381619 2.2810001
-0.74078196 -0.75381619 2.2810001
-0.73643714 -0.75381619 2.2810001
-0.73209238 -0.75381619 2.2810001
-0.72774768 -0.75381619 2.2810001
-0.72340292 -0.75381619 2.2810001
-0.72410196 -0.75910389 2.2970002
-0.71972674 -0.75910389 2.2970002
-0.71535152 -0.75910389 2.2970002
-0.72026193 -0.76901811 2.3270001
-0.72075146 -0.77430576 2.3430002
-0.71628857 -0.77430576 2.3430002
-0.71182573 -0.77430576 2.3430002
-0.71219337 -0.77959341 2.3590002
-0.70770007 -0.77959341 2.3590002
-0.7082743 -0.78521144 2.3760002
-0.69871336 -0.77959341 2.3590002
-0.69922286 -0.78521144 2.3760002
-0.6946972 -0.78521144 2.3760002
-0.69017148 -0.78521144 2.3760002
-0.68564576 -0.78521144 2.3760002
-0.68112004 -0.78521144 2.3760002
-0.67659438 -0.78521144 2.3760002
-0.67659438 -0.79049909 2.3920002
-0.67203814 -0.79049909 2.3920002
-0.66748196 -0.79049909 2.3920002
-0.65849149 -0.78521144 2.3760002
-0.65396577 -0.78521144 2.3760002
-0.64944005 -0.78521144 2.3760002
-0.64491433 -0.78521144 2.3760002
-0.644701 -0.79049909 2.3920002
-0.64014477 -0.79049909 2.3920002
-0.63558859 -0.79049909 2.3920002
-0.63103241 -0.79049909 2.3920002
-0.62647623 -0.79049909 2.3920002
-0.62634003 -0.79611719 2.4090002
-0.62175149 -0.79611719 2.4090002
-0.61716288 -0.79611719 2.4090002
-0.61257434 -0.79611719 2.4090002
-0.60798579 -0.79611719 2.4090002
-0.60339713 -0.79611719 2.4090002
-0.59880859 -0.79611719 2.4090002
-0.59422004 -0.79611719 2.4090002
-0.58963144 -0.79611719 2.4090002
-0.58504289 -0.79611719 2.4090002
-0.58045435 -0.79611719 2.4090002
-0.57992953 -0.80173522 2.4260001
-0.57530862 -0.80173522 2.4260001
-0.57068765 -0.80173522 2.4260001
-0.56606674 -0.80173522 2.4260001
-0.56144571 -0.80173522 2.4260001
-0.55682474 -0.80173522 2.4260001
-0.55220383 -0.80173522 2.4260001
-0.54758286 -0.80173522 2.4260001
-0.54296196 -0.80173522 2.4260001
-0.40031621 -0.59617907 1.8040001
-0.39688003 -0.59617907 1.8040001
-0.39562479 -0.59948385 1.8140001
-0.39000764 -0.59617907 1.8040001
-0.38464287 -0.5932048 1.7950001
-0.38313526 -0.59617907 1.8040001
-0.37969905 -0.59617907 1.8040001
-0.37626287 -0.59617907 1.8040001
-0.37282667 -0.59617907 1.8040001
-0.36939049 -0.59617907 1.8040001
-0.36595431 -0.59617907 1.8040001
-0.36251813 -0.59617907 1.8040001
nan nan nan
-0.47491717 -0.79611719 2.4090002
-0.4703286 -0.79611719 2.4090002
-0.46574003 -0.79611719 2.4090002
-0.46115148 -0.79611719 2.4090002
-0.45334098 -0.79049909 2.3920002
-0.4519743 -0.79611719 2.4090002
-0.44422859 -0.79049909 2.3920002
-0.43967241 -0.79049909 2.3920002
-0.43511623 -0.79049909 2.3920002
-0.43056002 -0.79049909 2.3920002
-0.42600384 -0.79049909 2.3920002
-0.42444289 -0.79611719 2.4090002
-0.41689146 -0.79049909 2.3920002
-0.41526574 -0.79611719 2.4090002
-0.41067716 -0.79611719 2.4090002
-0.40895429 -0.80173522 2.4260001
-0.40433335 -0.80173522 2.4260001
-0.40251333 -0.80735332 2.4430001
-0.40062857 -0.81297141 2.46
-0.39594287 -0.81297141 2.46
-0.39125714 -0.81297141 2.46
-0.38657141 -0.81297141 2.46
-0.38188571 -0.81297141 2.46
-0.37996003 -0.81892002 2.4780002
-0.37524 -0.81892002 2.4780002
-0.37052003 -0.81892002 2.4780002
-0.36580002 -0.81892002 2.4780002
-0.36108002 -0.81892002 2.4780002
-0.35636005 -0.81892002 2.4780002
-0.35164002 -0.81892002 2.4780002
-0.34439999 -0.81297141 2.46
-0.34220001 -0.81892002 2.4780002
-0.33748004 -0.81892002 2.4780002
-0.33276001 -0.81892002 2.4780002
-0.32804 -0.81892002 2.4780002
-0.32097143 -0.81297141 2.46
-0.31628573 -0.81297141 2.46
-0.3116 -0.81297141 2.46
-0.30915999 -0.81892002 2.4780002
-0.30444002 -0.81892002 2.4780002
-0.29972002 -0.81892002 2.4780002
-0.29500002 -0.81892002 2.4780002
-0.29028001 -0.81892002 2.4780002
-0.28556001 -0.81892002 2.4780002
-0.28084001 -0.81892002 2.4780002
-0.27612001 -0.81892002 2.4780002
-0.27140003 -0.81892002 2.4780002
-0.26668 -0.81892002 2.4780002
-0.26196 -0.81892002 2.4780002
-0.25724003 -0.81892002 2.4780002
-0.25252002 -0.81892002 2.4780002
-0.24779999 -0.81892002 2.4780002
-0.24308002 -0.81892002 2.4780002
-0.23836002 -0.81892002 2.4780002
-0.23364002 -0.81892002 2.4780002
-0.20536287 -0.73464859 2.223
-0.20112857 -0.73464859 2.223
-0.19556573 -0.72969151 2.2080002
-0.19136001 -0.72969151 2.2080002
-0.18715431 -0.72969151 2.2080002
-0.18294857 -0.72969151 2.2080002
-0.17874287 -0.72969151 2.2080002
-0.17343047 -0.72506475 2.194
-0.13916571 -0.59617907 1.8040001
-0.13505238 -0.5932048 1.7950001
-0.13097334 -0.59023052 1.7860001
-0.12692858 -0.58725619 1.7770001
-0.12354381 -0.58725619 1.7770001
-0.11955048 -0.58428192 1.7680001
-0.11618286 -0.58428192 1.7680001
-0.11224096 -0.58130765 1.7590001
-0.10889048 -0.58130765 1.7590001
-0.10554 -0.58130765 1.7590001
-0.10218953 -0.58130765 1.7590001
-0.098839052 -0.58130765 1.7590001
-0.095000006 -0.57833338 1.7500001
-0.091666676 -0.57833338 1.7500001
-0.088333338 -0.57833338 1.7500001
-0.085000008 -0.57833338 1.7500001
-0.081666671 -0.57833338 1.7500001
-0.078333341 -0.57833338 1.7500001
-0.074614286 -0.57535905 1.7410001
-0.071298093 -0.57535905 1.7410001
-0.067981906 -0.57535905 1.7410001
-0.064331435 -0.57238477 1.7320001
-0.061032388 -0.57238477 1.7320001
-0.057733335 -0.57238477 1.7320001
-0.054434288 -0.57238477 1.7320001
-0.051400952 -0.57535905 1.7410001
-0.048084762 -0.57535905 1.7410001
-0.044768572 -0.57535905 1.7410001
-0.041666672 -0.57833338 1.7500001
-0.038333338 -0.57833338 1.7500001
-0.035000004 -0.57833338 1.7500001
-0.03166667 -0.57833338 1.7500001
-0.028333334 -0.57833338 1.7500001
-0.025000002 -0.57833338 1.7500001
-0.021666668 -0.57833338 1.7500001
-0.018333334 -0.57833338 1.7500001
-0.015000001 -0.57833338 1.7500001
-0.011726667 -0.58130765 1.7590001
-0.0083761904 -0.58130765 1.7590001
-0.0050257146 -0.58130765 1.7590001
-0.0016752381 -0.58130765 1.7590001
0.0016752381 -0.58130765 1.7590001
0.0045600003 -0.52744001 1.5960001
0.0076000006 -0.52744001 1.5960001
0.010640001 -0.52744001 1.5960001
0.01368 -0.52744001 1.5960001
0.016720001 -0.52744001 1.5960001
0.019760001 -0.52744001 1.5960001
0.0228 -0.52744001 1.5960001
0.025840001 -0.52744001 1.5960001
0.02888 -0.52744001 1.5960001
0.031780005 -0.5251267 1.5890001
0.034631431 -0.52248293 1.5810001
0.037642859 -0.52248293 1.5810001
0.04065429 -0.52248293 1.5810001
0.043472383 -0.52016956 1.5740001
0.046470478 -0.52016956 1.5740001
0.049468577 -0.52016956 1.5740001
0.052466668 -0.52016956 1.5740001
0.055464763 -0.52016956 1.5740001
0.058462862 -0.52016956 1.5740001
0.061460957 -0.52016956 1.5740001
0.064172387 -0.51785618 1.567
0.067157142 -0.51785618 1.567
0.070141904 -0.51785618 1.567
0.073126674 -0.51785618 1.567
0.076111428 -0.51785618 1.567
0.079096191 -0.51785618 1.567
0.081714287 -0.51554286 1.5600001
0.084685721 -0.51554286 1.5600001
0.087657146 -0.51554286 1.5600001
0.090628572 -0.51554286 1.5600001
0.093600005 -0.51554286 1.5600001
0.096138105 -0.51322955 1.5530001
0.099096194 -0.51322955 1.5530001
0.10205429 -0.51322955 1.5530001
0.10453905 -0.51091623 1.5460001
0.10748382 -0.51091623 1.5460001
0.11042858 -0.51091623 1.5460001
0.11337334 -0.51091623 1.5460001
0.11579143 -0.50860286 1.539
0.11872286 -0.50860286 1.539
0.12165429 -0.50860286 1.539
0.12458572 -0.50860286 1.539
0.12751715 -0.50860286 1.539
0.13044858 -0.50860286 1.539
0.13338 -0.50860286 1.539
0.13631143 -0.50860286 1.539
0.13924286 -0.50860286 1.539
0.14152762 -0.50628954 1.5320001
0.14444572 -0.50628954 1.5320001
0.14736381 -0.50628954 1.5320001
0.15028191 -0.50628954 1.5320001
0.1532 -0.50628954 1.5320001
0.15540476 -0.50397623 1.5250001
0.15830953 -0.50397623 1.5250001
0.16058001 -0.50199336 1.5190001
0.16347334 -0.50199336 1.5190001
0.16636668 -0.50199336 1.5190001
0.16848001 -0.49967998 1.5120001
0.17136 -0.49967998 1.5120001
0.17424001 -0.49967998 1.5120001
0.17712002 -0.49967998 1.5120001
0.18000001 -0.49967998 1.5120001
0.18288001 -0.49967998 1.5120001
0.18502286 -0.49769717 1.506
0.18789144 -0.49769717 1.506
0.19076 -0.49769717 1.506
0.19362858 -0.49769717 1.506
0.19649714 -0.49769717 1.506
0.19936571 -0.49769717 1.506
0.2022343 -0.49769717 1.506
0.20510286 -0.49769717 1.506
0.20700477 -0.49538383 1.4990001
0.20888002 -0.49307054 1.4920001
0.21172191 -0.49307054 1.4920001
0.21456383 -0.49307054 1.4920001
0.21740572 -0.49307054 1.4920001
0.21936192 -0.49108765 1.4860001
0.22219238 -0.49108765 1.4860001
0.22502287 -0.49108765 1.4860001
0.22785333 -0.49108765 1.4860001
0.23068382 -0.49108765 1.4860001
0.23351428 -0.49108765 1.4860001
0.23634477 -0.49108765 1.4860001
0.23917525 -0.49108765 1.4860001
0.24200574 -0.49108765 1.4860001
0.24384762 -0.48910475 1.48
0.24666667 -0.48910475 1.48
0.2494857 -0.48910475 1.48
0.25111145 -0.48679143 1.473
0.25512382 -0.48910475 1.48
0.25794286 -0.48910475 1.48
0.25952858 -0.48679143 1.473
0.26233429 -0.48679143 1.473
0.26514 -0.48679143 1.473
0.26685432 -0.48480859 1.4670001
0.26964858 -0.48480859 1.4670001
0.27244288 -0.48480859 1.4670001
0.27523717 -0.48480859 1.4670001
0.27803144 -0.48480859 1.4670001
0.28082573 -0.48480859 1.4670001
0.28362003 -0.48480859 1.4670001
0.28524286 -0.48282576 1.4610001
0.28802574 -0.48282576 1.4610001
0.29080859 -0.48282576 1.4610001
0.29359144 -0.48282576 1.4610001
0.29637429 -0.48282576 1.4610001
0.29792857 -0.48084286 1.455
0.30070001 -0.48084286 1.455
0.30347145 -0.48084286 1.455
0.30624288 -0.48084286 1.455
0.30901429 -0.48084286 1.455
0.3117857 -0.48084286 1.455
0.31326002 -0.47886002 1.4490001
0.31602001 -0.47886002 1.4490001
0.31878003 -0.47886002 1.4490001
0.32154003 -0.47886002 1.4490001
0.32430002 -0.47886002 1.4490001
0.32570574 -0.47687718 1.4430001
0.32982004 -0.47886002 1.4490001
0.33120289 -0.47687718 1.4430001
0.33395144 -0.47687718 1.4430001
0.3353 -0.47489429 1.437
0.33803713 -0.47489429 1.437
0.33935145 -0.47291145 1.4310001
0.34207717 -0.47291145 1.4310001
0.34480289 -0.47291145 1.4310001
0.34752861 -0.47291145 1.4310001
0.3502543 -0.47291145 1.4310001
0.35298002 -0.47291145 1.4310001
0.35421431 -0.47092861 1.4250001
0.35692859 -0.47092861 1.4250001
0.35964289 -0.47092861 1.4250001
0.36235714 -0.47092861 1.4250001
0.36353427 -0.46894571 1.419
0.36623716 -0.46894571 1.419
0.36894 -0.46894571 1.419
0.37164286 -0.46894571 1.419
0.37434572 -0.46894571 1.419
0.37704858 -0.46894571 1.419
nan nan nan
nan nan nan
nan nan nan
nan nan nan
nan nan nan
nan nan nan
nan nan nan
nan nan nan
nan nan nan
nan nan nan
nan nan nan
nan nan nan
nan nan nan
nan nan nan
0.81046295 -0.91013145 2.7540002
0.81570864 -0.91013145 2.7540002
0.82095432 -0.91013145 2.7540002
